# .PCD v0.7 - Point Cloud Data file format
VERSION 0.7
FIELDS x y z
SIZE 4 4 4
TYPE F F F
COUNT 1 1 1
WIDTH 1533
HEIGHT 1
VIEWPOINT 0 0 0 1 0 0 0
POINTS 1533
DATA ascii
-43.192436 43.268185 1.9462318
-42.678234 40.313015 3.0577049
-43.536816 40.958622 0.026170466
-43.12709 43.270294 2.108207
-43.529621 41.133118 0.096339554
-43.081516 43.283607 2.2786
-43.523342 41.332317 0.16936892
-43.037834 43.737389 2.5526173
-43.517033 41.554691 0.24831729
-42.98106 47.139099 3.6146255
-43.506634 41.769253 0.34028387
-42.905655 47.064255 3.872225
-43.498062 42.028938 0.43689269
-42.830631 46.980862 4.126266
-43.488499 42.316521 0.54413652
-42.915474 40.419178 2.1681192
-43.477596 42.638714 0.66497105
-42.892559 40.303497 2.2230771
-43.466091 43.007206 0.79965454
-42.865387 40.328209 2.3288724
-43.453259 43.430309 0.9528994
-42.83046 40.49128 2.4978259
-43.438919 43.929977 1.13088
-42.801266 40.501328 2.6073501
-43.357162 43.351383 1.2852963
-42.775887 40.441807 2.6854246
-43.308208 43.27478 1.4454918
-42.750828 40.380669 2.7619269
-43.261131 43.227779 1.6062522
-42.705429 40.574146 2.9768884
-43.215553 43.200081 1.7663434
-42.68259 40.475437 3.0358264
-43.172104 43.243145 1.9364077
-42.669029 40.292233 3.0395291
-43.52409 40.948357 0.026601655
-43.108688 43.346653 2.1153493
-43.517906 41.134895 0.093643263
-43.061768 43.294731 2.2743556
-43.510777 41.332573 0.1667826
-43.016438 43.740452 2.5461283
-43.50452 41.562031 0.24430797
-42.948711 47.133659 3.6020544
-43.492313 41.766472 0.33761084
-42.873478 47.053844 3.8578215
-43.484428 42.041962 0.43205884
-42.798397 46.982292 4.115005
-43.473392 42.32465 0.53972381
-42.904942 40.399269 2.1572042
-43.461266 42.645435 0.66046965
-42.87109 40.602455 2.3292673
-43.448143 43.009087 0.79505217
-43.434177 43.436081 0.94780719
-42.818771 40.494816 2.4947071
-43.417885 43.931034 1.1252558
-42.792065 40.461433 2.5843019
-43.338028 43.357174 1.2801898
-42.766911 40.405487 2.6628394
-43.288761 43.27187 1.4398003
-42.737537 40.406265 2.7703142
-43.242352 43.240475 1.6018372
-42.699772 40.499863 2.930557
-43.196507 43.207588 1.7614568
-42.671211 40.47139 3.0280902
-43.154533 43.323112 1.9422789
-42.660629 40.265274 3.017621
-43.513206 40.951614 0.023684749
-43.090401 43.462624 2.1292622
-43.507034 41.143459 0.089436933
-43.041794 43.276691 2.2642169
-43.498631 41.336212 0.16352703
-42.995068 43.743446 2.5396218
-43.490883 41.559013 0.24199593
-42.916481 47.126392 3.5890412
-43.478039 41.763641 0.33493373
-42.841122 47.063541 3.8491497
-43.46962 42.042839 0.42856863
-42.765835 47.000374 4.1089363
-43.457081 42.318863 0.53649807
-42.689926 46.937977 4.3711586
-43.444378 42.645164 0.65637064
-42.870461 40.318321 2.2202938
-43.430218 43.010902 0.79043645
-42.836803 40.472656 2.3776228
-43.415997 43.455715 0.94257051
-43.397083 43.935497 1.1196775
-42.783161 40.421413 2.5613196
-43.318199 43.348995 1.2744612
-42.756378 40.394588 2.6527464
-43.269524 43.272358 1.434343
-42.352337 45.056126 5.1752801
-43.222855 43.234051 1.5955684
-42.69173 40.458187 2.9024014
-43.177696 43.223694 1.7575996
-42.670643 40.357681 2.9564886
-43.137833 43.465263 1.9571999
-42.648193 40.277855 3.0201886
-43.501892 40.951447 0.021597464
-43.070492 43.492699 2.1280198
-43.494915 41.14175 0.08746849
-43.022045 43.277401 2.2578754
-43.486099 41.336388 0.16092195
-42.973743 43.741249 2.5319343
-43.478008 41.562832 0.23853068
-42.884167 47.135983 3.5803444
-43.464642 41.769394 0.33104119
-42.808609 47.081581 3.8428228
-43.454834 42.043671 0.42506823
-42.733086 47.023411 4.1043773
-43.442268 42.330372 0.5317468
-42.657204 46.955936 4.3652463
-43.428047 42.651787 0.65183353
-42.855068 40.427479 2.2561762
-43.412674 43.017883 0.78562069
-42.833466 40.313515 2.3102472
-43.396133 43.4492 0.93754405
-42.797306 40.469223 2.474592
-43.376484 43.943375 1.1141369
-42.772182 40.416763 2.5545506
-43.298702 43.345959 1.2689556
-42.741863 40.437946 2.6690369
-43.249969 43.264091 1.428279
-42.714352 40.411636 2.7632339
-43.203602 43.232754 1.5897912
-42.675327 40.510193 2.9257853
-43.158295 43.218983 1.7511948
-42.65913 40.3596 2.9524496
-43.11652 43.400417 1.9413983
-42.633999 40.305679 3.0321078
-43.491653 40.959743 0.017392425
-43.050598 43.543427 2.1302843
-43.48362 41.146835 0.083984174
-43.002327 43.284908 2.2528884
-43.473778 41.338234 0.15797505
-42.952484 43.737267 2.5238509
-43.465485 41.570061 0.23447324
-42.851582 47.164169 3.5763497
-43.451073 41.773376 0.32737383
-42.775742 47.113068 3.8402426
-43.439766 42.040985 0.42195377
-42.699799 47.061497 4.1044226
-43.427139 42.338371 0.52727497
-42.623043 47.010525 4.3716474
-43.411709 42.65836 0.64727491
-42.844639 40.412563 2.2464771
-43.39455 43.016106 0.78109902
-42.823112 40.305233 2.3027477
-43.37624 43.440861 0.93253344
-43.355785 43.949455 1.1085423
-42.754707 40.505722 2.5902684
-43.279411 43.346333 1.2635866
-42.72683 40.484543 2.686789
-43.23082 43.264439 1.4228032
-42.708622 40.347012 2.7250128
-43.184238 43.226177 1.5835155
-42.66534 40.491833 2.9105294
-43.138962 43.214195 1.7447855
-42.639683 40.437279 2.992336
-43.100025 43.625706 1.9681133
-42.625042 40.286163 3.0149283
-43.48077 40.962906 0.01443802
-43.030457 43.60107 2.133635
-43.471344 41.143337 0.082378916
-42.982613 43.288925 2.2471957
-43.461464 41.340042 0.1550175
-42.93119 43.743458 2.5180709
-43.452431 41.572083 0.23126674
-42.818607 47.207607 3.5761516
-43.437664 41.779053 0.32344678
-43.426201 42.055595 0.41683331
-43.410923 42.33242 0.52402228
-43.395485 42.666634 0.64258558
-43.376797 43.019493 0.77637494
-43.356915 43.441162 0.92742598
-42.443089 45.571712 4.6208529
-43.335007 43.953728 1.1028992
-42.744473 40.488132 2.5775697
-43.259941 43.341412 1.257993
-42.714905 40.489574 2.6843605
-43.211647 43.262981 1.4171994
-42.70121 40.305977 2.6991174
-43.165134 43.226479 1.5778844
-42.64463 40.583061 2.9551439
-43.119492 43.198925 1.7371351
-42.626087 40.45623 2.9980528
-43.079899 43.661068 1.9668221
-42.610676 40.313972 3.0267742
-43.46928 40.966213 0.011306886
-43.010048 44.561562 2.2905977
-43.458473 41.139973 0.080597937
-42.9618 43.296631 2.241864
-43.448669 41.343723 0.15152989
-42.9086 43.75848 2.5138621
-43.439007 41.577717 0.22727077
-43.423805 41.788368 0.31880373
-42.359467 59.307095 7.2130609
-43.409943 42.047832 0.41408148
-43.394558 42.335354 0.51975346
-43.377747 42.666405 0.63817966
-43.357975 43.021358 0.77143329
-43.337025 43.450428 0.92191255
-43.312935 43.954773 1.0968748
-42.733238 40.477123 2.5676382
-43.239681 43.341949 1.252316
-42.702316 40.494759 2.6817374
-43.191418 43.26001 1.4111856
-42.686489 40.339527 2.7113152
-43.144978 43.225269 1.5717947
-42.156483 45.213406 5.4689727
-43.099407 43.202961 1.7314639
-42.614491 40.450562 2.9892468
-43.058475 43.700211 1.9656453
-42.594753 40.348106 3.0421193
-43.458599 40.971012 0.0079024909
-42.986641 44.51989 2.2759602
-43.447201 41.144947 0.077080585
-42.942234 43.286755 2.2334304
-43.436722 41.348896 0.14787491
-42.887573 43.747417 2.5042088
-43.426289 41.583111 0.22345291
-42.483234 58.29882 6.327301
-43.409039 41.77837 0.31706786
-42.289204 59.291821 7.183641
-43.395649 42.05368 0.40992811
-43.379185 42.339729 0.51554519
-43.360958 42.665855 0.63401312
-43.340946 43.036854 0.76620382
-42.770172 40.623077 2.4139411
-43.317833 43.452351 0.91675067
-42.19352 48.252483 5.7229872
-43.292198 43.958908 1.0911947
-42.720554 40.493397 2.5702732
-43.22039 43.338623 1.2467786
-42.69009 40.50293 2.6808159
-43.172344 43.258408 1.4055645
-42.675278 40.341175 2.7073927
-43.125919 43.22369 1.5659823
-42.653954 40.263767 2.7710438
-43.080284 43.197941 1.7250453
-42.608089 40.405861 2.958322
-43.037994 43.739014 1.9647012
-42.582886 40.352962 3.0398548
-43.447136 40.96896 0.006192022
-42.965065 44.163456 2.2083108
-43.436283 41.153316 0.072782144
-42.922741 43.278519 2.225337
-43.424599 41.35231 0.14454222
-42.866043 43.76712 2.5014083
-43.412472 41.576366 0.22167613
-42.415115 58.336632 6.3133912
-43.395496 41.782185 0.31334579
-42.218987 59.281364 7.1556082
-43.381084 42.056004 0.4061645
-43.363575 42.340572 0.51163799
-43.344307 42.666996 0.6297223
-42.795433 40.49041 2.2574387
-43.323013 43.036583 0.76155859
-42.757462 40.637993 2.4151514
-43.29882 43.457703 0.91152489
-43.271538 43.964729 1.0855155
-42.709808 40.485344 2.5619736
-43.201263 43.338722 1.241367
-43.153355 43.258484 1.4000452
-42.663437 40.34914 2.7066987
-43.106903 43.222042 1.5601604
-42.644138 40.254349 2.7611654
-43.061256 43.196323 1.7190268
-42.597424 40.399857 2.9497426
-43.017269 43.760475 1.9612122
-42.572575 40.345516 3.0301273
-43.43631 40.966702 0.0046448172
-42.944695 44.09145 2.1894624
-43.425449 41.156338 0.069792427
-42.904137 43.288853 2.2212288
-43.412827 41.352055 0.14206269
-42.84605 43.767582 2.4947207
-43.400791 41.584942 0.2174411
-42.351746 58.337368 6.2915239
-43.382298 41.78054 0.31056836
-42.152679 59.276329 7.130517
-43.367966 42.066765 0.40158197
-43.349186 42.346359 0.50747412
-42.805599 40.621101 2.1979373
-43.328796 42.671322 0.62544101
-42.777588 40.608253 2.2957044
-43.30592 43.032478 0.75731492
-42.74604 40.642796 2.4126706
-43.281101 43.46796 0.90649515
-42.237316 46.779625 5.0800114
-43.251717 43.961418 1.0800314
-42.700764 40.465694 2.5487857
-43.183025 43.331463 1.2359741
-42.671997 40.457951 2.6499546
-43.135376 43.254707 1.3945835
-42.656979 40.310791 2.6827202
-43.089008 43.221779 1.5547752
-43.043301 43.190868 1.7128897
-42.584263 40.420048 2.9564667
-42.997536 43.9916 1.9876643
-42.561779 40.347046 3.0261631
-43.427288 40.986782 -0.0026604212
-42.921818 44.180626 2.197232
-43.414494 41.164654 0.065458126
-42.884731 43.282192 2.2134576
-43.401352 41.362293 0.13734272
-42.824947 43.766582 2.4873145
-43.388222 41.591953 0.21328339
-42.289314 58.202217 6.2348228
-43.369579 41.794693 0.30531147
-42.082783 59.267048 7.1028996
-43.353519 42.070751 0.39757913
-43.333824 42.350597 0.50321728
-43.312466 42.677601 0.62077302
-42.762787 40.658142 2.3091333
-43.288483 43.040836 0.75229299
-42.733215 40.657669 2.4138231
-43.262295 43.478458 0.90114462
-42.713806 40.523426 2.4653804
-43.231262 43.972363 1.0743718
-42.684681 40.519234 2.5680096
-43.164032 43.333179 1.2306091
-42.664459 40.419342 2.6268337
-43.116497 43.256401 1.3891531
-42.649323 40.280464 2.6626666
-43.070076 43.219997 1.5489346
-42.617191 40.306007 2.7797525
-43.024384 43.190857 1.7070559
-42.571114 40.434193 2.9594135
-42.975994 44.009693 1.9834125
-42.55138 40.341038 3.0173709
-43.414894 40.981369 -0.0037050967
-42.8978 44.226887 2.1973095
-43.402542 41.169682 0.061699633
-42.864246 43.279202 2.2060475
-43.387939 41.358883 0.13515136
-42.802368 43.777859 2.4822006
-43.37365 41.583527 0.21159041
-42.224117 58.069305 6.1777096
-43.355537 41.802071 0.30082664
-42.009541 59.250065 7.0718417
-43.337811 42.067936 0.39417151
-41.842255 59.139153 7.6495152
-43.317406 42.351528 0.49903363
-43.295406 42.68758 0.61559415
-43.269661 43.040653 0.74734104
-42.722176 40.639622 2.4020102
-43.241684 43.469917 0.89578128
-42.038673 48.357883 5.7081752
-43.209217 43.96954 1.0682248
-42.672897 40.516113 2.5616739
-43.143818 43.326355 1.2246267
-42.657562 40.371136 2.5990219
-43.096523 43.253063 1.3830967
-42.622993 40.415905 2.7262285
-43.050148 43.21843 1.5427949
-42.075024 44.7547 5.1627808
-43.004452 43.187576 1.7005247
-42.557831 40.443829 2.9594853
-42.953323 44.007202 1.9758775
-43.403503 40.979168 -0.0054452713
-42.875698 44.219036 2.1887825
-43.390255 41.164177 0.060431633
-42.84478 43.281021 2.1999238
-43.375687 41.36042 0.13211311
-42.781052 43.785316 2.4766343
-43.360954 41.588722 0.2077055
-42.159313 58.042759 6.1482148
-43.341118 41.793549 0.29882094
-41.939274 59.257259 7.0488095
-43.323284 42.070084 0.39035252
-43.301765 42.350422 0.49524119
-43.278797 42.688511 0.61124116
-43.251999 43.043644 0.74250031
-42.71524 40.579922 2.3745148
-43.22258 43.471531 0.89053619
-41.916157 49.335049 6.0972981
-43.188519 43.971592 1.0624356
-42.664783 40.48185 2.5418296
-43.124836 43.324425 1.219118
-42.175411 44.865055 4.7198606
-43.077671 43.251122 1.3774301
-42.614876 40.388725 2.7077289
-43.031319 43.218258 1.5370883
-42.048374 44.763416 5.1562333
-42.985603 43.194405 1.6954545
-41.932007 45.108532 5.6015692
-42.931892 44.006039 1.968907
-42.525581 40.361366 3.0190468
-43.392818 40.983776 -0.0089244293
-42.854008 44.195473 2.1776977
-43.379112 41.170677 0.056438435
-42.825531 43.275856 2.1924703
-43.363735 41.365376 0.12837413
-42.759731 43.792709 2.4710417
-43.348255 41.593884 0.20380381
-42.089638 58.135868 6.1479383
-43.327602 41.797153 0.29502878
-41.87178 59.211391 7.0114245
-43.308662 42.070435 0.38673225
-43.286816 42.361511 0.49027571
-43.262215 42.689388 0.60687608
-43.234756 43.05711 0.73718691
-42.708858 40.518417 2.346488
-43.203392 43.46957 0.88533825
-43.167927 43.977085 1.0566584
-42.651901 40.497971 2.5443304
-43.106018 43.329445 1.2138379
-42.115211 45.184975 4.8600149
-43.058865 43.249107 1.3717551
-42.609764 40.337513 2.6772425
-43.012527 43.218018 1.5313704
-42.021126 44.776787 5.1521821
-42.966774 43.195938 1.6897774
-41.944397 44.817917 5.4250536
-42.910286 44.022221 1.964317
-42.517056 40.342896 3.0028522
-43.38229 40.99007 -0.012853889
-42.831036 44.234341 2.1768129
-43.367039 41.166813 0.05477114
-42.806293 43.27235 2.1853397
-43.351635 41.368568 0.12496499
-42.738262 43.80349 2.4661639
-43.334908 41.590324 0.2013952
-42.026138 58.084869 6.1125245
-43.314201 41.802464 0.29096389
-41.801842 59.218079 6.9883227
-43.29406 42.07074 0.38310042
-41.636063 59.085796 7.5570407
-43.271645 42.369061 0.48561683
-43.245422 42.684948 0.60286498
-43.216709 43.049461 0.73276979
-42.694057 40.559608 2.3577948
-43.184494 43.476326 0.87996733
-42.670864 40.490063 2.4332306
-43.147263 43.979004 1.0508319
-43.087101 43.327385 1.2083048
-43.040146 43.254047 1.3664813
-42.600029 40.327705 2.6676619
-42.993774 43.21246 1.5251951
-41.993832 44.790096 5.1480885
-42.947968 43.197414 1.6840849
-42.886322 44.183025 1.9794102
-43.369987 40.977467 -0.011999001
-42.80732 44.294056 2.1792221
-43.35545 41.168072 0.051927134
-42.787117 43.268768 2.178205
-43.339405 41.369991 0.1218918
-42.716702 43.815941 2.4616261
-43.321972 41.59193 0.19807461
-41.959297 58.110775 6.0958095
-43.300575 41.804245 0.28739995
-41.732506 59.215988 6.962883
-43.279869 42.077988 0.37860453
-43.255962 42.366055 0.4819524
-43.228977 42.687466 0.59835631
-42.698463 40.724422 2.3098807
-43.199089 43.052288 0.72788125
-42.684345 40.541065 2.3462973
-43.165504 43.479507 0.87464267
-41.869579 48.591965 5.7454782
-43.126438 43.970303 1.0449229
-43.068237 43.32526 1.2027646
-42.614704 40.362144 2.5764484
-43.021412 43.251907 1.3607837
-42.587227 40.343426 2.6708798
-42.975071 43.212086 1.5194594
-42.572487 40.227928 2.7141902
-42.92923 43.195328 1.6779966
-41.890301 44.835121 5.4116683
-42.862938 44.263763 1.9833503
-41.427402 47.406647 7.2034168
-43.359653 40.992428 -0.018306885
-42.778412 44.475925 2.2007201
-43.343807 41.176357 0.047318969
-42.766792 43.268856 2.1714056
-43.326515 41.371548 0.11861748
-42.694077 43.825184 2.4559801
-43.308575 41.597153 0.19393058
-41.887913 58.152901 6.0816708
-43.286114 41.804428 0.28387132
-41.660336 59.19928 6.9321833
-43.264225 42.073154 0.37536791
-43.239475 42.363209 0.4780407
-41.326698 58.949436 8.0761299
-43.211567 42.688408 0.59369981
-43.180405 43.051788 0.72286046
-43.145676 43.491699 0.86882389
-43.104588 43.96357 1.0387013
-43.048431 43.330364 1.1971393
-41.642109 48.505722 6.3784032
-43.00169 43.249962 1.3547833
-42.566807 40.413708 2.7009964
-42.955353 43.213665 1.5135617
-42.90942 43.198689 1.6721733
-41.867207 44.806431 5.3834186
-42.838779 44.302975 1.981153
-43.349258 40.99332 -0.020789545
-42.757381 44.460564 2.1911929
-43.333 41.179111 0.044236649
-42.748665 43.268326 2.1652088
-43.315109 41.374454 0.11536418
-42.674129 43.826855 2.4495113
-43.296368 41.598495 0.19078781
-41.823784 58.192966 6.069521
-43.273869 41.816406 0.2789301
-41.595245 59.195679 6.9077911
-43.251011 42.083614 0.37063307
-42.133839 49.170513 4.5713248
-43.225319 42.373913 0.473232
-43.196182 42.694099 0.58916819
-43.163895 43.057766 0.71805632
-42.651367 40.650093 2.3786573
-43.127499 43.482174 0.86401546
-41.789684 48.646152 5.7378535
-43.085072 43.954411 1.0331179
-43.030636 43.319038 1.1916066
-42.575382 40.507088 2.6349378
-42.984089 43.245663 1.3492664
-42.025311 44.499264 4.7269473
-42.937809 43.20763 1.5076669
-42.544838 40.274742 2.7297096
-42.891773 43.197952 1.6665498
-41.800915 45.090038 5.5314889
-42.815594 44.393951 1.9865731
-41.72422 45.087933 5.7968497
-43.337833 40.989174 -0.022131333
-42.73484 44.455879 2.1829731
-43.321823 41.185452 0.040168818
-42.729343 43.271473 2.1593356
-43.303032 41.377499 0.11190714
-42.652325 43.842587 2.445611
-43.284321 41.613911 0.18497033
-41.75613 58.228653 6.0549765
-43.259975 41.81282 0.27611274
-43.236633 42.087234 0.36651745
-43.209934 42.376015 0.46902069
-43.179657 42.692944 0.58487099
-41.922726 48.908772 5.1450348
-43.146358 43.062183 0.71303689
-42.641113 40.636448 2.3689864
-43.108654 43.490459 0.85852689
-43.064342 43.927837 1.0271434
-41.654854 48.632984 6.0593257
-43.011932 43.325512 1.1863028
-42.965511 43.241554 1.3434497
-42.919224 43.207058 1.5019013
-41.610928 46.764423 6.143682
-42.873192 43.193913 1.6602448
-41.764969 45.151859 5.5542254
-42.792999 44.401379 1.9803505
-41.681156 45.189384 5.8447413
-43.327156 40.993587 -0.025683209
-42.712025 44.459827 2.1761217
-43.309605 41.177929 0.039262947
-42.710197 43.271088 2.1528049
-43.290726 41.377029 0.10914315
-42.629898 43.868656 2.4438508
-43.270771 41.604904 0.18344592
-43.246483 41.816181 0.27223483
-43.221951 42.083801 0.36326453
-43.194115 42.365765 0.46601945
-41.972717 49.016163 4.83213
-43.163319 42.69701 0.58017498
-41.885815 48.901566 5.1281509
-43.128754 43.063023 0.70816779
-41.795696 48.82262 5.4361143
-43.08984 43.502224 0.85293138
-41.705547 48.734676 5.743957
-43.043476 43.850006 1.0210426
-41.614059 48.662201 6.056788
-42.993229 43.323116 1.1807237
-42.559845 40.451344 2.5996759
-42.946926 43.244423 1.3380086
-42.541092 40.362862 2.6619761
-42.90073 43.202908 1.4958427
-42.854588 43.193314 1.6543051
-41.739578 45.143097 5.5374894
-42.769855 44.426239 1.976401
-43.316196 40.99453 -0.028362399
-42.687778 44.498615 2.1747191
-43.297943 41.177277 0.03676616
-42.691177 43.268894 2.145946
-43.278999 41.385208 0.10459904
-42.608337 43.877373 2.4384105
-43.257786 41.604561 0.18037586
-43.233082 41.821247 0.26807746
-42.111897 49.231915 4.2148037
-43.208035 42.097858 0.35779753
-42.024242 49.116005 4.5136876
-43.17897 42.373035 0.46126258
-41.935425 49.012093 4.816721
-43.146942 42.699265 0.57559347
-41.846264 48.922771 5.1211314
-43.111111 43.060276 0.70345926
-41.757076 48.833744 5.4256439
-43.07082 43.498055 0.84767747
-41.735382 48.14246 5.4903889
-43.02322 43.805531 1.0151362
-42.004185 45.159523 4.5273705
-42.97459 43.317127 1.1750398
-42.547512 40.460659 2.5993609
-42.92844 43.240185 1.3321764
-41.882854 44.996597 4.9410453
-42.882267 43.200443 1.4899197
-41.26836 48.639091 7.0983148
-42.835926 43.196159 1.6487231
-41.718029 45.110672 5.5076666
-42.746841 44.444054 1.9714804
-41.626114 45.195572 5.8239512
-43.305046 41.000748 -0.032558732
-42.662445 44.528961 2.1715014
-43.286259 41.185394 0.032077212
-42.670856 43.27211 2.1397154
-43.265518 41.376133 0.10340049
-42.584736 43.900177 2.4354794
-43.244572 41.613071 0.17553154
-42.160011 49.349903 3.8997808
-43.218288 41.812447 0.26582244
-42.072876 49.219509 4.1971736
-43.192661 42.096275 0.35406876
-41.984474 49.115643 4.4989624
-43.16264 42.369911 0.45730361
-41.895622 49.013481 4.8022833
-43.129715 42.703449 0.57060105
-41.806019 48.929264 5.1082158
-43.092728 43.070053 0.69784647
-41.714146 48.865288 5.4219694
-43.050819 43.495831 0.84207028
-41.980854 45.721607 4.503118
-43.002197 43.891888 1.0091455
-41.939789 45.453339 4.6427779
-42.95491 43.321907 1.169337
-42.528618 40.513947 2.6190355
-42.908958 43.237885 1.3261327
-41.855259 44.998646 4.9304819
-42.862736 43.201683 1.4839637
-42.816395 43.193924 1.6422753
-41.698528 45.058041 5.466126
-42.718983 44.556759 1.9784005
-41.587917 45.252449 5.8445034
-43.294605 41.008511 -0.037043691
-42.637657 44.571194 2.1704774
-43.274387 41.181202 0.03036342
-42.651726 43.273262 2.1334643
-43.253586 41.38076 0.099542163
-42.561237 43.938263 2.4360693
-43.231258 41.605659 0.17369151
-42.122993 49.336727 3.8833048
-43.205509 41.831444 0.25949252
-42.034527 49.22702 4.1855307
-43.178368 42.101475 0.34966874
-41.945736 49.128273 4.4887609
-43.147396 42.373566 0.45286903
-41.856419 49.031162 4.7937837
-43.113468 42.710892 0.56558585
-41.765171 48.962032 5.105124
-43.075146 43.067184 0.69311357
-41.669872 48.926277 5.4299951
-43.031952 43.500355 0.83658171
-42.982605 43.675789 1.0031734
-41.918903 45.405869 4.611413
-42.93634 43.319309 1.1637317
-42.890587 43.233505 1.3202894
-42.502869 40.396965 2.6646035
-42.844357 43.199085 1.478022
-41.764595 44.946869 5.140821
-42.797897 43.193127 1.6363021
-41.660763 45.127514 5.4929304
-42.694767 44.593826 1.9757819
-41.549061 45.319817 5.8717465
-43.283768 41.002312 -0.037795216
-42.612881 44.634098 2.172966
-43.26363 41.183754 0.027221063
-42.633793 43.272354 2.1271987
-43.242313 41.385193 0.09586367
-42.540115 43.955223 2.4326379
-43.219296 41.610264 0.16985844
-42.087238 49.336716 3.8706677
-43.192699 41.832706 0.25604177
-41.997627 49.242496 4.176702
-43.164581 42.097652 0.34661043
-41.911575 49.112972 4.4713082
-43.133045 42.378738 0.4484849
-41.817303 49.068592 4.7922463
-43.097931 42.707481 0.56162602
-41.72525 49.004322 5.106029
-43.058659 43.072861 0.68820322
-43.014137 43.504578 0.83137888
-42.965004 43.524517 0.9978413
-41.891693 45.420269 4.6072998
-42.918919 43.3111 1.1582872
-42.873116 43.237644 1.3151875
-41.841213 44.756733 4.7910185
-42.827003 43.197941 1.4725074
-41.735516 44.976746 5.1458478
-42.780533 43.190258 1.6304414
-41.617516 45.235992 5.5417295
-42.673615 44.584942 1.9676372
-41.52298 45.321526 5.8611631
-43.272717 41.010155 -0.042483822
-42.591019 44.589081 2.1580083
-43.25161 41.186565 0.023696963
-42.612259 43.296299 2.1246579
-43.229794 41.391647 0.091418445
-42.516052 43.979645 2.4298854
-43.206299 41.623905 0.16401377
-42.045944 49.354858 3.8607574
-43.177757 41.816734 0.25485647
-41.954086 49.286373 4.1736751
-43.149712 42.109989 0.3410413
-41.864414 49.194202 4.4799194
-43.116768 42.373684 0.44468045
-41.769794 49.145988 4.8015833
-43.080753 42.713272 0.55644625
-43.040215 43.077175 0.6827966
-41.596317 48.912697 5.3956518
-42.994232 43.512772 0.82544923
-41.806702 46.443264 4.7572103
-42.945816 43.419487 0.99207968
-42.899349 43.313915 1.1524982
-42.498074 40.491306 2.5946913
-42.853764 43.235138 1.3091156
-42.807686 43.195454 1.466249
-42.761086 43.189575 1.6241467
-41.587212 45.247616 5.5356812
-42.65033 44.569542 1.9578582
-43.261337 41.004017 -0.043417279
-42.568874 44.576904 2.148541
-43.240322 41.190926 0.019939618
-42.589535 43.353127 2.128264
-43.217663 41.392685 0.088235594
-42.491062 44.031551 2.4330921
-43.193077 41.616356 0.16215715
-42.004242 49.403526 3.8585896
-43.165115 41.842659 0.2473579
-41.910049 49.357201 4.178247
-43.135361 42.1133 0.33681667
-41.818935 49.274918 4.4889784
-43.101822 42.391312 0.43873334
-43.064415 42.713497 0.55192626
-43.022717 43.072357 0.67812407
-42.97541 43.5065 0.82019109
-41.526169 48.378609 5.5129189
-42.927006 43.430897 0.98655152
-41.874111 45.148975 4.4694543
-42.880955 43.309349 1.1468288
-42.484604 40.507004 2.597225
-42.835487 43.232327 1.3033363
-41.813885 44.603046 4.6946874
-42.789322 43.196186 1.4605461
-41.674809 45.023056 5.1469493
-42.742702 43.18858 1.6181436
-41.537525 45.378605 5.5957632
-42.627243 44.578346 1.951555
-43.25066 41.008202 -0.047055647
-42.547688 44.550606 2.1369698
-43.228653 41.188313 0.017796965
-42.568626 43.378525 2.126205
-43.205471 41.391937 0.085406803
-42.463036 44.11998 2.4435964
-43.180466 41.622761 0.15775228
-41.95784 49.505775 3.8686161
-43.15136 41.836945 0.24474648
-43.120804 42.107761 0.3337267
-43.086494 42.389488 0.43478447
-43.048138 42.717205 0.54711556
-43.005283 43.076328 0.67297238
-41.51907 48.932037 5.3735437
-42.956612 43.507244 0.81473053
-41.490673 48.375423 5.4973783
-42.908844 43.394402 0.98113334
-41.80365 45.464481 4.5928926
-42.862621 43.30471 1.1411564
-41.770523 45.188084 4.7183723
-42.817158 43.232986 1.2977198
-41.779308 44.666901 4.7153497
-42.771057 43.195091 1.4547009
-41.641685 45.065899 5.1579113
-42.724361 43.187523 1.6121311
-42.604515 44.580048 1.9443457
-41.450638 45.263687 5.7904053
-43.239773 41.0089 -0.049802903
-42.602623 43.317234 1.9449006
-43.217735 41.199554 0.012382251
-42.5471 43.410885 2.1253147
-43.193684 41.399876 0.080747791
-43.167778 41.62738 0.15364894
-43.137959 41.841728 0.24048042
-40.914406 59.107098 6.6368551
-43.10638 42.10569 0.33017385
-39.064995 75.432144 11.836443
-43.07132 42.396442 0.42989552
-43.031853 42.719093 0.54242951
-42.987835 43.089108 0.66731828
-41.66695 47.475967 4.827035
-42.93779 43.513245 0.80910015
-41.637211 47.032646 4.9539318
-42.890228 43.398586 0.97561044
-41.27467 48.939377 6.0525455
-42.844131 43.308868 1.1356707
-42.798912 43.231815 1.2920074
-41.71315 44.922901 4.828721
-42.752758 43.195702 1.4489744
-41.62368 45.019276 5.1227894
-42.70623 43.182873 1.6057628
-41.50111 45.279343 5.5178051
-42.581814 44.581673 1.9371192
-41.426929 45.246628 5.7685223
-43.228794 41.007832 -0.052104689
-42.587814 43.254787 1.9292713
-43.206093 41.196865 0.010221077
-42.526699 43.425732 2.1213002
-43.18158 41.400799 0.077531546
-42.410141 44.239513 2.4525452
-43.155201 41.635468 0.14888501
-41.173946 57.419003 5.6395912
-43.124554 41.84647 0.23619705
-40.849411 59.079353 6.6053114
-43.092274 42.119446 0.32451943
-38.951233 75.388771 11.780632
-43.056107 42.401588 0.42517197
-43.015564 42.713844 0.53830165
-42.970413 43.087658 0.66241705
-41.652199 47.337555 4.7638535
-42.918987 43.517414 0.80350012
-41.60046 47.069809 4.955987
-42.871899 43.388519 0.9701336
-42.825886 43.3041 1.1299819
-41.696529 45.327496 4.7597952
-42.78064 43.232349 1.2863659
-41.684132 44.944901 4.8286643
-42.734482 43.196251 1.443234
-41.599323 45.010853 5.1074114
-42.687798 43.185215 1.6000757
-41.471397 45.295025 5.514637
-42.559139 44.583225 1.9298738
-41.346462 45.522854 5.9158907
-43.218407 41.017109 -0.057144511
-42.571003 43.227322 1.9189283
-43.194241 41.188915 0.0092912642
-42.253998 46.730804 2.6880145
-43.169632 41.405174 0.073571309
-42.38784 44.244392 2.4458783
-43.14217 41.62949 0.14668669
-41.045319 58.138702 5.7802653
-43.110779 41.835331 0.23440582
-40.779358 59.104801 6.5872946
-43.077793 42.111988 0.32164419
-38.829056 75.427223 11.747853
-43.040829 42.397846 0.42137867
-40.454845 58.793175 7.6941853
-42.999332 42.720943 0.53316015
-40.295731 58.619686 8.2386169
-42.953045 43.084373 0.65760744
-40.136555 58.448254 8.7830763
-42.900272 43.516201 0.79804647
-41.686768 46.239845 4.6184006
-42.853416 43.38903 0.96460456
-41.7369 45.374065 4.5223351
-42.807541 43.304588 1.1243955
-41.667011 45.346565 4.7574782
-42.762531 43.229279 1.2805527
-41.643288 45.036373 4.8619623
-42.71632 43.194965 1.4373567
-41.57679 44.992725 5.0871286
-42.669384 43.187496 1.5943731
-41.464764 45.187305 5.4444714
-42.627712 43.092083 1.7410483
-41.340893 45.4105 5.838932
-43.207626 41.019436 -0.060379203
-42.554012 43.205032 1.9093961
-43.183361 41.201805 0.0034128351
-42.483635 43.481556 2.1176841
-43.157986 41.418259 0.067751236
-42.365395 44.250946 2.4395344
-43.129631 41.639259 0.14156643
-40.996529 57.977566 5.7211537
-43.097446 41.841747 0.22982264
-40.713726 59.086903 6.5583277
-43.063507 42.11507 0.31735742
-40.553715 58.917919 7.1054702
-43.025612 42.397583 0.41719943
-40.38456 58.818302 7.6765895
-42.983105 42.722672 0.52843416
-40.218903 58.695507 8.2382317
-42.935684 43.084576 0.65258944
-41.547783 47.629124 4.8441367
-42.88163 43.513145 0.79263902
-42.835468 43.369934 0.95918703
-42.789402 43.299686 1.1186957
-41.649929 45.288734 4.7206154
-42.744255 43.231464 1.2749676
-41.643078 44.888401 4.7802963
-42.698368 43.190075 1.4312228
-41.459541 45.497898 5.3337998
-42.651287 43.184418 1.5881503
-41.432648 45.216991 5.4490438
-41.316708 45.394783 5.8177996
-43.19685 41.021729 -0.063625477
-43.171719 41.197254 0.0016473648
-42.460087 43.53133 2.1195343
-43.145306 41.401577 0.068196855
-42.342312 44.264416 2.4345417
-43.116573 41.629677 0.14000966
-40.994873 57.348873 5.5576725
-43.084126 41.849888 0.22493708
-40.639484 59.151657 6.5501204
-43.04921 42.116341 0.31329241
-40.480701 58.968636 7.0947242
-43.010406 42.39196 0.41358748
-40.316113 58.827888 7.6542215
-42.966866 42.727901 0.52339834
-40.149925 58.708542 8.2168226
-42.918346 43.084724 0.64755833
-39.969246 58.687889 8.817317
-42.863106 43.50647 0.78733987
-41.613037 46.346004 4.6367111
-42.81715 43.36853 0.95366085
-41.707134 45.227222 4.4396009
-42.771191 43.298271 1.1130556
-41.600948 45.425415 4.7709851
-42.726307 43.22649 1.2690593
-41.620342 44.874535 4.7631369
-42.680107 43.192207 1.4255723
-42.633343 43.179501 1.5817535
-41.401608 45.240299 5.4501176
-43.185242 41.018909 -0.065684445
-42.514824 43.22023 1.8987499
-43.159554 41.194538 -0.00072393171
-42.439823 43.52697 2.1116848
-43.132603 41.402481 0.064742841
-43.103043 41.62722 0.13693635
-40.902447 57.618252 5.5945005
-43.069935 41.851093 0.2209364
-40.568909 59.146191 6.5229135
-43.034161 42.121269 0.30849886
-40.395157 59.092144 7.102613
-42.994408 42.398857 0.40836164
-40.230118 58.947285 7.6638017
-42.94976 42.729713 0.51836908
-41.546448 47.802605 4.5777283
-42.900021 43.088566 0.6420154
-39.900833 58.667976 8.7824135
-42.843231 43.515945 0.78118902
-42.797958 43.36372 0.9478448
-41.664516 45.322411 4.4682403
-42.751862 43.30056 1.1071581
-41.600868 45.259632 4.6854496
-42.707237 43.225212 1.2629912
-41.600941 44.834927 4.7331986
-42.660946 43.192719 1.4194782
-41.415379 45.434875 5.2779856
-42.613995 43.181812 1.5757046
-41.371113 45.252769 5.4446869
-42.572926 43.086342 1.7220738
-43.174492 41.021133 -0.06894879
-43.148544 41.205593 -0.0062456545
-42.415581 43.580208 2.1139677
-43.120724 41.408459 0.060360391
-41.270832 54.878254 4.4917364
-43.090492 41.636875 0.13176699
-40.854038 57.485348 5.5427675
-43.056461 41.848572 0.21771939
-40.489445 59.253826 6.5251746
-43.019901 42.125984 0.30392686
-40.325062 59.113331 7.0834756
-42.979218 42.410858 0.4027811
-40.15572 59.000889 7.6546373
-42.933487 42.738396 0.51299512
-42.882767 43.086815 0.63706422
-42.82452 43.519814 0.77550721
-41.534389 46.465744 4.6591802
-42.779671 43.363964 0.94228637
-41.647442 45.266808 4.4345899
-42.733799 43.297241 1.1014674
-41.581131 45.222633 4.6582742
-42.689491 43.218323 1.2570004
-41.56797 44.879196 4.7438283
-42.642525 43.198277 1.414035
-42.596157 43.176762 1.5692958
-41.347538 45.237881 5.4251995
-42.554661 43.090118 1.7165277
-43.163673 41.021584 -0.0717621
-42.477959 43.219131 1.8860551
-43.137379 41.213135 -0.010956499
-42.394436 43.596573 2.1099341
-43.1087 41.409142 0.057083692
-41.21796 54.870174 4.4713025
-43.077908 41.646496 0.12657227
-40.799992 57.412968 5.5046806
-43.043026 41.846001 0.2144967
-40.40942 59.361366 6.527184
-43.005638 42.134201 0.29885307
-40.245129 59.213451 7.0859323
-42.964062 42.4104 0.39854982
-40.082226 59.045788 7.6427479
-42.917419 42.73103 0.50896543
-42.865391 43.092125 0.63167304
-41.423187 47.565323 4.7691531
-42.805756 43.525402 0.76974249
-41.115562 48.93013 5.5970864
-42.761204 43.369492 0.93666136
-41.649544 45.098492 4.3544149
-42.715618 43.297413 1.0958236
-41.55563 45.219921 4.6464272
-42.671246 43.222038 1.2514403
-41.539551 44.897476 4.7420492
-42.624531 43.196678 1.4081012
-41.318024 45.658279 5.3677793
-42.578011 43.17696 1.5633683
-42.536934 43.086761 1.7101368
-41.174114 45.545784 5.8549414
-43.153 41.025475 -0.075511508
-42.459499 43.219372 1.8798155
-43.125877 41.210175 -0.013167307
-42.372887 43.616405 2.1064451
-43.096806 41.415051 0.05266894
-41.16613 54.853157 4.4491587
-43.065041 41.638485 0.12467473
-40.747459 57.331577 5.4647779
-43.029709 41.857517 0.20896807
-40.32267 59.520763 6.5417295
-42.991383 42.124664 0.29618874
-38.273239 74.19886 11.149585
-42.948952 42.408112 0.3945083
-40.008568 59.090511 7.6307297
-42.901299 42.730721 0.50432229
-42.848103 43.093822 0.62647957
-41.383739 47.609173 4.7719932
-42.787285 43.522026 0.76427776
-41.458778 46.568321 4.6751895
-42.743095 43.366051 0.9311108
-41.647438 44.961334 4.2875519
-42.697468 43.297523 1.0901674
-41.521976 45.263046 4.6548858
-42.653606 43.215015 1.2454398
-41.513504 44.902699 4.7340803
-42.607365 43.182575 1.4013506
-42.559769 43.178871 1.5575886
-41.205822 45.66666 5.6314998
-42.518841 43.08865 1.7043543
-43.1422 41.02586 -0.078343429
-42.441074 43.219543 1.8735639
-43.114456 41.208916 -0.015801881
-43.084663 41.408646 0.05088054
-41.115429 54.827179 4.4253321
-43.052338 41.639229 0.1211144
-40.684048 57.350914 5.4470711
-43.016266 41.842487 0.20774904
-40.235477 59.676655 6.5550809
-42.97718 42.120388 0.29279703
-40.105263 59.248001 7.0452099
-42.933838 42.409325 0.39005998
-39.931675 59.157299 7.6252351
-42.885136 42.733913 0.49935868
-41.427509 47.704636 4.4947205
-42.830341 43.113277 0.62016499
-41.526756 46.477734 4.3583007
-42.768547 43.527496 0.75847715
-41.121861 48.438793 5.3795424
-42.725117 43.36076 0.92557579
-41.501755 45.659172 4.564806
-42.679714 43.290443 1.0844042
-41.490784 45.291363 4.6567268
-42.635624 43.215046 1.2397155
-41.488712 44.901344 4.7230234
-42.588661 43.193291 1.396207
-41.266926 45.637592 5.3340096
-42.541939 43.175396 1.5513188
-41.202538 45.550041 5.5573783
-42.500916 43.088711 1.6983541
-41.140228 45.448978 5.7760286
-43.131416 41.026207 -0.081183515
-42.42284 43.217888 1.8670537
-43.103275 41.216358 -0.020556886
-43.072838 41.417988 0.045682158
-41.060028 54.846527 4.4102225
-43.039684 41.643456 0.11687353
-40.620209 57.373554 5.4300451
-43.002937 41.852154 0.20247704
-40.061878 60.517349 6.7351027
-42.962872 42.137337 0.28644723
-38.065121 74.061729 11.028632
-42.918659 42.415825 0.38499436
-39.855694 59.215374 7.6170173
-42.869061 42.733494 0.4946925
-41.338009 48.081875 4.6048336
-42.813259 43.107742 0.61537653
-42.749672 43.53648 0.75251949
-41.424057 46.419773 4.5949402
-42.707119 43.357189 0.92001569
-41.463181 45.724327 4.5806589
-42.661835 43.286861 1.0786861
-41.463409 45.298271 4.6491046
-42.617558 43.216801 1.2340463
-41.460815 44.916157 4.7195926
-42.570663 43.193283 1.3903592
-41.213036 45.767006 5.3871517
-42.523479 43.180737 1.5458275
-41.173954 45.555599 5.5485678
-42.482418 43.095791 1.6931479
-43.1208 41.031738 -0.08543665
-43.091919 41.216778 -0.02363532
-43.06078 41.413254 0.043504518
-41.014179 54.779842 4.3787184
-43.027035 41.64941 0.11227984
-40.561348 57.354153 5.4038758
-42.98959 41.85471 0.19834748
-42.948753 42.127647 0.28377569
-39.961922 59.307575 7.0111499
-42.903751 42.406273 0.38173664
-39.780197 59.268143 7.6071129
-42.853012 42.733021 0.49001542
-41.312828 48.023949 4.5730286
-42.796173 43.103924 0.61047173
-41.461082 46.521484 4.3509083
-42.730698 43.547199 0.74646372
-41.042881 48.484795 5.3689256
-42.689163 43.353554 0.91444868
-41.433449 45.738033 4.5753155
-42.6436 43.290352 1.0730443
-41.097733 47.101551 5.429122
-42.599854 43.213146 1.2281646
-42.552692 43.193211 1.3844982
-42.50544 43.180691 1.5398479
-41.115051 45.70108 5.6139688
-42.463593 43.106365 1.6883149
-40.993557 45.856014 5.9812055
-43.109985 41.030281 -0.08782734
-43.080776 41.227657 -0.029276401
-43.048866 41.417259 0.039416417
-40.966827 54.730434 4.3506217
-43.014324 41.63945 0.11071121
-40.502071 57.339752 5.3788338
-42.976234 41.860764 0.19361785
-39.982906 60.036404 6.5670638
-42.934624 42.124996 0.28011408
-39.884026 59.381065 7.0057769
-42.888592 42.412674 0.37664184
-39.707535 59.300171 7.5909853
-42.836941 42.734276 0.48516896
-41.501202 46.600632 4.1004386
-42.778683 43.112537 0.60475475
-41.124981 48.383652 4.9926081
-42.712482 43.540005 0.7410841
-40.958069 48.768147 5.4622889
-42.671356 43.348068 0.90890259
-40.940327 48.291981 5.6061621
-42.625805 43.286648 1.0673087
-40.64888 49.280281 6.3686848
-42.582081 43.211212 1.2223421
-42.535156 43.187737 1.3782998
-41.143112 45.8344 5.397202
-42.488171 43.1717 1.5330895
-41.073078 45.765453 5.6361098
-42.438782 43.182491 1.6907811
-40.965942 45.852188 5.9666624
-43.099403 41.037487 -0.092578501
-43.069103 41.208755 -0.027679626
-42.201088 44.287552 2.1810579
-43.036995 41.426506 0.034162693
-40.90913 54.77203 4.3397298
-43.00169 41.647087 0.1057542
-40.441452 57.337349 5.3563967
-42.962879 41.865009 0.18916376
-39.958286 59.702232 6.4613166
-42.920364 42.132954 0.27494231
-39.805294 59.457867 7.0011387
-42.873753 42.404789 0.37317702
-39.633495 59.34058 7.5772753
-42.820831 42.737263 0.48014793
-41.483086 46.52961 4.0663257
-42.761314 43.117531 0.59924495
-41.388824 46.602116 4.3562655
-42.694 43.53989 0.73541546
-40.727627 49.866333 5.8629575
-42.653313 43.347874 0.90327221
-41.438602 45.416328 4.4226184
-42.60828 43.279301 1.0615323
-41.029366 47.127018 5.4143863
-42.564224 43.211002 1.2165736
-41.208412 45.786007 5.093812
-42.517818 43.180412 1.3719921
-41.094311 45.931664 5.4336925
-42.470222 43.171528 1.5270951
-41.033924 45.815472 5.6505361
-42.421528 43.173489 1.6836641
-40.914577 45.950546 6.0093546
-43.087978 41.034325 -0.094700731
-43.057377 41.223183 -0.034403056
-42.178848 44.282974 2.1723695
-43.024326 41.418251 0.032527771
-40.85313 54.773651 4.3202343
-42.988346 41.649521 0.1015783
-40.379055 57.323135 5.3302307
-42.948776 41.869347 0.18446037
-39.888622 59.684433 6.430686
-42.905487 42.130352 0.27101392
-39.727829 59.497215 6.9849725
-42.857677 42.414814 0.36737272
-39.549343 59.420982 7.5737925
-42.803776 42.742146 0.47466612
-41.428654 46.675144 4.1011901
-42.743053 43.120857 0.59353107
-41.060677 48.338139 4.9487467
-42.674511 43.539898 0.72940922
-40.951748 48.386578 5.2889824
-42.634804 43.338863 0.89745677
-42.589581 43.275646 1.0554721
-40.620842 49.022038 6.2242498
-42.545784 43.205555 1.2102959
-41.178024 45.791546 5.0843034
-42.498245 43.189251 1.3663195
-41.080997 45.855106 5.3832464
-42.45113 43.173256 1.5209209
-41.034348 45.682442 5.5678854
-42.401958 43.178799 1.6777893
-40.99826 45.468201 5.7269611
-43.077312 41.037983 -0.098534584
-42.240486 44.051556 1.9472451
-43.046124 41.228706 -0.03881022
-42.157906 44.278088 2.1640592
-43.012402 41.415108 0.029946582
-40.798481 54.788597 4.3042531
-42.975739 41.646484 0.098638028
-40.316868 57.334278 5.3106961
-42.935463 41.869965 0.18056916
-39.815044 59.723042 6.4149389
-42.891251 42.136444 0.2660574
-39.647205 59.582333 6.9822655
-42.842613 42.417511 0.36264136
-39.814774 57.295464 6.9273334
-42.787811 42.741459 0.46993977
-42.726486 43.107868 0.58918297
-41.283096 46.860519 4.4223561
-42.655998 43.541443 0.72363955
-42.616848 43.338543 0.89181
-41.380249 45.43972 4.4105024
-42.572315 43.266373 1.0496805
-42.528008 43.205215 1.2045081
-41.12558 45.909229 5.127398
-42.480556 43.187149 1.360311
-41.076626 45.74741 5.3183222
-42.433399 43.171181 1.5147523
-40.984604 45.411839 5.6838326
-43.066586 41.038124 -0.10143188
-42.215076 44.094242 1.945789
-43.034786 41.225441 -0.0410765
-42.13681 44.274895 2.1560228
-43.000511 41.418961 0.025809303
-41.265217 50.689095 3.5283141
-42.963097 41.652241 0.093972124
-40.254227 57.348728 5.2918334
-42.922222 41.866989 0.17726675
-39.745316 59.733631 6.3924646
-42.877213 42.133606 0.26235774
-40.510418 53.434059 5.3350916
-42.827671 42.416599 0.35831648
-41.234108 48.038231 4.2110968
-42.772015 42.737148 0.46553561
-41.120998 48.149876 4.5478101
-42.70908 43.114483 0.58350545
-41.012714 48.215473 4.8792486
-42.637695 43.539352 0.71800774
-40.795513 48.847839 5.4338436
-42.600277 43.316681 0.88653642
-41.186893 46.296616 4.745214
-42.554359 43.267769 1.0439676
-41.159027 46.017452 4.8956695
-42.510395 43.20303 1.1986502
-41.104469 45.876827 5.1008768
-42.462753 43.186771 1.3543955
-41.044205 45.768627 5.317183
-42.415199 43.174385 1.5090146
-40.954346 45.788448 5.5998397
-40.971748 45.353741 5.6399283
-43.055901 41.039974 -0.10481328
-42.194881 44.08905 1.9379081
-43.023491 41.223885 -0.043777898
-42.1147 44.280449 2.1493723
-42.988621 41.421021 0.022047343
-41.174 51.079613 3.5855777
-42.950535 41.64912 0.091017075
-40.187023 57.396229 5.279882
-42.909084 41.86042 0.17456362
-39.671577 59.771843 6.376502
-42.863163 42.132492 0.25839666
-40.468864 53.382305 5.303071
-42.812572 42.420982 0.35334545
-42.754978 42.763157 0.45827314
-42.691936 43.115677 0.57817531
-42.61871 43.549728 0.71181673
-41.305565 45.957989 4.3414774
-42.583866 43.294735 0.88129079
-41.200886 46.080315 4.6468081
-42.53709 43.260155 1.0381863
-41.141434 45.966427 4.862268
-42.492386 43.206146 1.1929522
-41.091053 45.810005 5.0586104
-42.444984 43.186329 1.3484696
-41.006584 45.812386 5.3270864
-42.397537 43.172184 1.5028242
-40.988495 45.525234 5.4505711
-42.345753 43.199169 1.661562
-40.94886 45.33807 5.6197281
-43.045124 41.033066 -0.10581248
-42.174133 44.089104 1.9307215
-43.01223 41.2258 -0.047354095
-42.09457 44.270035 2.1402035
-42.976742 41.423038 0.018273612
-41.134163 51.06575 3.5681806
-42.937893 41.6548 0.086322106
-42.895737 41.86623 0.16974236
-39.969975 57.314137 5.7739129
-42.848988 42.136677 0.25365162
-42.797604 42.421757 0.34878457
-41.142094 48.189381 4.2294731
-42.739845 42.744442 0.45519263
-42.674526 43.122185 0.57245624
-40.925529 48.3158 4.8870077
-42.600132 43.552887 0.70591563
-41.12772 46.739445 4.6211495
-42.566864 43.283463 0.87586021
-40.592358 48.964306 5.790247
-42.519482 43.257847 1.0324345
-41.175266 45.672646 4.7247581
-42.475754 43.1931 1.1867504
-42.428566 43.171535 1.3417406
-41.002449 45.709034 5.2648625
-42.379913 43.169926 1.4966259
-40.97897 45.451748 5.4008365
-42.328922 43.188065 1.6542225
-40.823471 45.734219 5.8272085
-43.034443 41.031353 -0.10824839
-42.151508 44.105053 1.9255997
-43.000977 41.229435 -0.051378276
-42.072056 44.278984 2.134068
-42.964935 41.416206 0.016450815
-41.095669 51.042931 3.5491831
-42.925323 41.655132 0.082654536
-40.616573 53.566746 4.4406257
-42.8825 41.866669 0.1658144
-42.834862 42.139034 0.24914908
-40.355804 53.472149 5.2897601
-42.783009 42.413551 0.34529138
-41.089783 48.298462 4.2480483
-42.723804 42.74712 0.45007977
-42.657505 43.121479 0.5672192
-40.915051 48.1861 4.8291636
-42.582245 43.545235 0.70048743
-42.549435 43.279289 0.87028915
-42.501625 43.25906 1.0266889
-41.163799 45.59972 4.6825857
-42.458279 43.190727 1.1808736
-40.94978 46.195621 5.212544
-42.410042 43.179905 1.3362907
-40.894142 46.056606 5.4231644
-42.362144 43.169384 1.4905603
-40.94828 45.467609 5.3977304
-42.3106 43.191124 1.6483819
-40.838966 45.562218 5.7204108
-43.023815 41.034843 -0.11213286
-42.124699 44.154667 1.9247931
-42.989727 41.229523 -0.054540522
-42.051369 44.273724 2.1257126
-42.953033 41.423443 0.01147867
-41.053719 51.046368 3.5349703
-42.912735 41.657196 0.078627706
-40.565117 53.582024 4.4259405
-42.869141 41.872398 0.16095883
-40.448982 53.443546 4.8281903
-42.820747 42.14135 0.24463321
-40.443813 52.631245 5.0532718
-42.767643 42.424938 0.33940989
-41.059376 48.276672 4.2289143
-42.707867 42.747959 0.44512421
-40.979034 48.183746 4.5064449
-42.640938 43.113548 0.56248522
-40.885841 48.159649 4.8068671
-42.563118 43.55724 0.69414109
-41.142826 46.360996 4.4577641
-42.531395 43.284019 0.86452097
-40.530136 48.906956 5.7378612
-42.483791 43.260216 1.0209299
-41.118492 45.685226 4.7082653
-42.441174 43.184708 1.1748887
-42.392204 43.181072 1.3304313
-40.878548 46.001617 5.3845043
-42.344219 43.17057 1.4846247
-40.882599 45.625744 5.4683142
-42.291679 43.199467 1.6430781
-40.90089 45.212971 5.5166435
-43.01321 41.045292 -0.11796273
-42.102962 44.161644 1.9184109
-42.978519 41.224304 -0.056393858
-42.027206 44.294926 2.1214311
-42.941154 41.427113 0.007276467
-41.05619 50.736042 3.4644516
-42.900082 41.662766 0.073883884
-40.656017 52.64674 4.2158523
-42.856033 41.869198 0.1576212
-40.535137 52.588249 4.611959
-42.806641 42.14362 0.24010275
-40.4184 52.502018 5.0024171
-42.752724 42.425568 0.33481175
-41.011959 48.352943 4.2378035
-42.691948 42.748745 0.44015533
-42.623333 43.123478 0.55645436
-40.807178 48.391098 4.8723187
-42.544201 43.565605 0.68792987
-42.507797 43.360462 0.85711843
-42.454964 43.39045 1.015468
-41.106091 45.618656 4.6690092
-42.423794 43.182209 1.1689996
-40.953701 45.927181 5.0666537
-42.374744 43.1786 1.324369
-40.861423 45.954563 5.3498707
-42.326706 43.168125 1.4783963
-40.845757 45.663933 5.4765301
-42.273571 43.20063 1.637013
-40.874363 45.214211 5.5061278
-43.002556 41.043476 -0.12042677
-42.083267 44.152569 1.9099679
-42.967251 41.233105 -0.061771385
-42.002472 44.319614 2.117636
-42.929276 41.430748 0.0030600841
-42.887585 41.661205 0.070536099
-40.611977 52.631432 4.1958728
-42.842846 41.869511 0.15366241
-40.494198 52.553894 4.5869308
-42.792828 42.138706 0.23661913
-40.374454 52.487 4.9812231
-42.73774 42.427933 0.32998219
-42.676147 42.747688 0.43535084
-40.91095 48.184631 4.4807286
-42.606506 43.120808 0.55131477
-40.761997 48.444317 4.8768644
-42.526817 43.55238 0.68273419
-40.98275 46.862328 4.6191244
-41.010281 46.314564 4.683392
-42.427628 43.495621 1.0097164
-41.072056 45.651154 4.6719928
-42.406113 43.183235 1.1631984
-40.954765 45.802429 4.9985642
-42.35696 43.179646 1.3184841
-40.828594 45.973763 5.3474884
-42.309235 43.165619 1.4721617
-40.696629 46.147179 5.7140374
-40.676338 45.870182 5.8539257
-42.991924 41.043373 -0.12338101
-42.059002 44.178963 1.9060143
-42.956024 41.23484 -0.065403149
-42.917431 41.432583 -0.00077231217
-40.992355 50.620243 3.4148862
-42.875114 41.659603 0.067181796
-40.567558 52.619465 4.1766052
-42.829056 41.887569 0.14658679
-40.452393 52.526333 4.5635414
-42.778374 42.149807 0.23073509
-40.321987 52.522152 4.9729114
-42.722488 42.435616 0.32447118
-40.948994 48.322571 4.2033443
-42.659958 42.753746 0.42982674
-40.964745 47.722572 4.3244925
-42.589363 43.123463 0.54576874
-41.069553 46.720001 4.2812457
-42.507656 43.564217 0.6763103
-41.145313 45.933533 4.2675261
-42.40723 43.518246 1.0037104
-41.038601 45.680283 4.67349
-42.38863 43.182407 1.1573374
-40.942024 45.739697 4.95891
-42.340534 43.168098 1.3119509
-40.799259 45.978302 5.3379998
-42.291599 43.164833 1.466054
-42.226463 43.291931 1.6338212
-40.672474 45.778206 5.7917023
-42.98069 41.048573 -0.12799759
-42.035328 44.191261 1.8998283
-42.944225 41.23312 -0.068361565
-42.905041 41.429176 -0.0036297364
-42.861763 41.665157 0.062168311
-40.519253 52.616505 4.1582484
-42.816399 41.854095 0.14828642
-42.763996 42.14135 0.22751622
-38.940201 60.108006 6.8872676
-42.706963 42.432644 0.32000768
-40.904655 48.367863 4.2025023
-42.643085 42.756302 0.42434928
-40.869244 48.039726 4.4093156
-42.571522 43.122616 0.54016531
-41.110039 46.36446 4.1495495
-42.489098 43.554604 0.67059928
-41.110825 45.95998 4.2658186
-40.828564 46.872097 4.8789649
-42.410988 43.271587 0.99742132
-41.017109 45.649982 4.6492581
-42.370369 43.179874 1.1510993
-40.877701 45.888435 5.0143337
-42.322025 43.167377 1.3056364
-40.79771 45.864651 5.2709332
-42.272991 43.164143 1.4596093
-42.202187 43.332355 1.6312044
-40.649803 45.752785 5.7653408
-42.970676 41.046562 -0.13029081
-42.933697 41.231174 -0.070919625
-41.319504 48.585506 2.7329125
-42.893539 41.444973 -0.010481664
-40.920952 50.563705 3.3761723
-42.850025 41.663368 0.059021853
-40.472607 52.635433 4.1461711
-42.802601 41.889774 0.13827337
-40.379894 52.4095 4.502923
-42.750553 42.146893 0.22265276
-38.867264 60.15097 6.8737974
-42.693539 42.422211 0.31698221
-40.872078 48.369347 4.1907077
-42.628231 42.754955 0.41979516
-40.850842 47.972569 4.3765731
-42.555355 43.125015 0.53489751
-42.471951 43.5536 0.66510171
-41.071072 46.024685 4.27916
-42.442616 43.290665 0.83578533
-40.769779 47.006927 4.9203734
-42.395622 43.257931 0.99192548
-40.985104 45.678722 4.6511598
-42.325413 43.451637 1.1519662
-40.825165 45.997398 5.052742
-42.305538 43.166302 1.2999579
-40.766731 45.883301 5.2690492
-42.256416 43.16309 1.4538047
-40.573578 46.285961 5.7486615
-42.179996 43.370659 1.6289948
-40.614666 45.785366 5.7719007
